# 3D point list with one line of data per point:
#   POINT3D_ID, X, Y, Z, R, G, B, ERROR, TRACK[] as (IMAGE_ID, POINT2D_IDX)
# Number of points: 366, mean track length: 4.8122027449381708
1851 1.1687207168918325 -1.4765644394247026 5.7186074137258531 142 129 154 0.23491237987956462 6 5345 4 5642 5 5215
12125 2.616924284529119 -1.6464799517659732 5.7457753866527321 107 80 102 0.37858953397258732 3 1010 2 1285 1 956
1852 1.1684444604382502 -1.4755812534562189 5.7159306041473901 142 129 154 0.34139204479713398 6 5346 4 5643 5 5216 7 1397 3 1554 2 1709
12126 1.8289639693574589 -1.7455737813445027 5.7423682793562705 121 104 123 0.15078987322278242 3 1070 2 1346 1 1036
1853 2.4673828849465069 -1.4702391867588664 5.7384737002551667 127 111 130 0.63671945436343713 6 5354 4 5571 5 5176 7 5546 8 4730 3 1276 2 1472 9 4923 10 1575 11 1664
12127 2.455772105766215 -1.6199391002437491 5.7444640574351222 123 105 124 0.137594269282653 3 1077 2 1349 1 1024
1854 1.9785903008432599 -1.4644803655581302 5.7331594210805843 117 92 114 0.19520154562148478 6 5356 4 8310 5 5195 7 5533 8 1216 3 8047 2 8082
12128 1.9659021797670264 -1.7027904008422186 5.7485110449160013 83 62 78 0.085921028501957888 3 1082 2 1355 1 1050
1855 2.3841190879243888 -1.4695428733856259 5.7544805546137461 143 122 138 0.7644092495507242 6 5359 4 5575 5 5186 3 5350 2 5464 1 1161
12129 0.88472328868905714 -1.8947254197797203 5.7345450291007705 134 114 136 0.30161548431878032 3 1099 2 1368 1 1089
1856 2.9395789271973194 -1.4680654129617017 5.7534626765234309 127 108 129 0.2013115722635001 6 5360 4 5540 5 5162 7 1519 8 1293 3 5282 2 5403 1 4431
12130 0.54693706172250367 -1.8119637076871415 5.3993109344558032 110 64 74 0.24669032594351092 3 1174 2 1422 1 1171
1857 -1.8532492995959011 -1.4317455343099237 5.6422101331090699 107 76 89 0.20460761941111782 6 5362 4 1893 5 1528 7 5364 8 4403 3 1924 9 4485 10 4557
12131 1.9321000011907659 -1.6027221874781934 5.7451515042351753 100 71 89 0.21047852498347439 3 5314 2 1440 1 1127
1858 -2.8422273996022045 -1.4206853743949495 5.6134523553505193 75 63 88 0.31556805846676017 6 5364 4 1953 5 1578
12133 2.5571799507726642 -1.411120799842696 5.7442440766615244 131 108 133 0.023430739301818548 3 1340 2 1524 1 1183
1860 1.8872415734655801 -1.4419854983693228 5.7370531794170541 101 75 88 0.49841276746935942 6 5370 4 5625 5 5221 7 5544 8 4712 3 5437 2 1633 1 1296
12134 -0.25518736914576789 -1.7973986369934589 5.2046215466091059 72 34 46 0.22874632153988769 3 1328 2 1525 1 1303
1861 1.2065849746537305 -1.4274675362345748 5.7139965583011989 138 115 134 0.18713450932948117 6 5373 4 5672 5 5239 7 5530 3 5504 2 5603 1 1426
12135 -2.2526476338399584 -2.2304676497053282 5.6734335850252009 88 72 93 0.17781406243592976 3 1343 2 1528 1 1344
1862 1.2066125305165223 -1.4273051507933581 5.7139829173751364 138 115 134 0.22770999426281419 6 5374 4 5673 7 5531 3 5505
12136 3.0764555836620802 -1.397175009667784 6.2068015234951792 79 81 104 0.39748664628101066 3 5390 2 1532 1 1155
1863 -3.2439470209042334 -1.3650685471017028 5.591879560983763 134 114 134 0.34579533647150779 6 5385 4 2008 5 5376 8 7224
12137 2.9802828888102435 -1.326163181768774 5.7459472274788519 97 73 95 0.072353131285796804 3 1360 2 1536 1 1176
1864 2.7726575847391266 -1.4085898505263368 5.741942065235297 138 117 135 0.56362838071053234 6 5392 4 8297 7 5585 3 8021 5 1317 2 5457 2 8043 1 4481
12138 3.0593860347207853 -1.3888759024787627 6.2081259553556132 59 41 63 1.3163219236668013 3 1389 2 1542 1 1169
1865 2.7732633259250354 -1.4074787946033047 5.7409073738573495 138 117 135 0.1533128024618832 6 5393 4 8298 7 5586
12139 0.30343164146552926 -1.6351094312287033 5.3132486498640477 53 24 29 0.12194736409191566 3 1443 2 1626 1 1366
1866 -3.1773411786654151 -1.3637135180811359 5.6031097288497564 70 58 86 0.94751901563057539 6 5394 4 2009 5 1640 7 5348 8 7234 10 9282
12140 0.30343164146552926 -1.6351094312287033 5.3132486498640477 53 24 29 0.12194736409191566 3 1444 2 1627 1 1367
1867 1.3059975084711366 -1.391833323382369 5.7190147410557222 110 81 99 0.47563246324322311 6 5396 4 5693 5 5262 7 5560 3 5518 2 5612 1 4652
12141 1.8895094425427628 -1.4398743241742102 5.7324462038297899 101 74 93 0.046011089432570561 3 5438 2 1634 1 1297
1868 1.2394320222135398 -1.3869737971632143 5.7135643902823583 114 85 107 0.26231822882448996 6 5400 4 5700 5 5265 7 5559 8 1228 3 5528 2 5617 1 4658
12142 0.97177400545024839 -1.5309229839533747 5.5473852275002882 155 102 120 0.201433170097845 3 5449 2 1655 1 1369
1869 1.3369400457315941 -1.3850200727522857 5.7143198676728959 97 74 90 0.30683417605983554 6 5402 4 5696 5 5266 7 5567 8 1239 3 1619 2 1772 9 1391 1 1442
12143 0.98261689679572517 -1.5452241572806629 5.723064795766339 127 104 123 0.14972377242592533 3 1504 2 1672 1 1374
1870 1.2212346975341788 -1.3813183247079903 5.7158732957181977 115 90 107 0.36467024307283674 6 5403 4 5705 5 5275 7 5565 8 4709 3 5534
12144 0.96774606366058413 -1.4489282297130612 5.465670042478231 83 44 53 0.70742074982776959 3 1566 2 1727 1 4634
1871 2.0368096521724364 -1.3867334870538151 5.7331722001725351 113 89 105 0.23136213767537528 6 5405 4 5652 5 5248 7 1561 8 1290 3 5453 2 5546 9 1483 1 4578
12145 2.2296509531112978 -1.2888101853125404 5.735418160145028 129 106 122 0.45374096863861257 3 1581 5 1527 2 1730 1 1383
1872 2.036896360113674 -1.386631211831979 5.7327148837306776 113 89 105 0.19091873559093125 6 5406 4 5653 5 5249 7 1562 8 1291 3 5454 2 5547 1 4579
12146 1.3369672600209068 -1.3852738838061596 5.7143208805128793 96 71 90 0.44321376909551452 8 1238 2 1771 9 1390 1 1441
1873 1.007466481592203 -1.3768679722193509 5.7058382022038288 113 83 93 0.39442765145123215 6 5407 4 1751 5 1446 3 1678 2 1828
12147 0.94117760678853291 -1.3452187446042077 5.7014160243142644 102 74 79 0.17636488616581347 3 5594 2 1865 1 1507
1874 1.8177944347804729 -1.3827891153825371 5.7283556376943965 99 71 90 0.22330431091738043 6 5410 4 5669 5 5256 7 1552 8 1279 3 5478 2 1698 1 4605
12148 -2.2269718960161171 -1.7606255262704564 5.6704860567988842 71 57 74 0.22509561856964347 3 1750 2 1883 1 1574
1875 1.8176994855646229 -1.3828945469784197 5.7287995390204065 99 71 90 0.25634414507960035 6 5411 4 5670 5 5257 7 1553 8 1280 3 5479 2 1699 9 1450 1 4606
12149 -3.0185770631300879 -1.8588711484920493 5.6398027490066589 127 104 120 0.049699709554131118 3 5622 2 1886 1 1589
1876 -1.9523778909556484 -1.3514146655144164 5.6395741291476424 125 97 114 0.37285783938435274 6 5416 4 1959 5 5369 7 5445 8 7345 9 4534 10 4635
12150 -0.65999889965871594 -1.4546342848136471 5.1574672463089275 130 81 95 0.13794854504489737 3 1754 2 1888 1 1566
1877 1.3163605748252492 -1.3728548653236099 5.7156158642170709 140 117 138 0.49005231861667764 6 5419 4 5714 5 5282 7 1537 8 1246 3 5533 2 1784 9 1397 1 1450
12152 -3.0802172236664203 -1.7982159258773052 5.6273291440531397 103 78 99 0.10212981479605533 3 5657 2 1926 1 1610
1879 2.2203476461865872 -1.3690920503842752 5.7366556411253882 109 81 96 0.16287356922762325 6 5427 4 8354 5 7947 7 5598 6 8079 8 4787 3 8070 2 5541 9 1518 1 4569 1 6782
12153 -2.9857909445097759 -1.6676408370817701 5.6295346323828612 68 49 60 0.055448998049880217 3 1871 2 1991 1 1669
1880 -2.8775024242217935 -1.3218963428948252 5.6038014265503859 126 107 127 0.3963838372688398 6 5430 4 5852 5 5384 7 5420 8 7287 3 5836 9 7140
12154 2.9486522577299614 -0.91558383420505185 5.721409379921818 130 101 119 0.021745105394645397 3 1852 2 1993 1 1572
1881 2.1370329055794248 -1.3568002165503898 5.7347026160326022 118 91 106 0.48834210356771734 6 5431 4 5671 5 5263 7 1591 8 1337 3 5465 2 5559 9 1516 10 1640 1 1340
12155 2.5457791962730885 -0.91352208472965035 5.7248773753712543 123 101 114 0.14789840720004485 3 1901 2 2025 1 1615
1882 2.7027079255329203 -1.3587142759329169 5.7489162883330769 101 79 108 0.39895884635916717 6 5432 4 5637 5 5251 7 5623 8 4823 3 1386 9 1593
12157 3.001115874414328 -0.81602218497192403 5.7265226054381086 119 96 117 0.14660996384393887 3 1940 2 2067 1 1638
1884 1.1898562782861084 -1.3382095698992886 5.7104663818465964 143 121 141 0.3548200053957466 6 5442 4 5739 5 5308 7 5582 8 4740 3 5563 2 5642 1 4674
12158 2.7215563778297214 -0.84303960797180066 5.716243168261518 110 85 107 0.16014289089455885 3 1950 2 2071 1 1653
1885 1.4362774086948302 -1.339837899294672 5.7213131069931924 139 117 138 0.23451639587119141 6 5443 4 5729 5 5301 7 1580 8 1285 3 5540 2 5627
12159 2.0988052918383118 -0.90588084109142808 5.7118273154807788 119 86 97 0.14310642329465009 7 2105 2 2081 1 1682
1886 1.3915331252250387 -1.3350074147230071 5.7197332681345383 144 119 139 0.26576813405883259 6 5445 4 5732 5 7980 7 5589 8 4755 3 5550 2 5632 9 1440 1 4665
12160 2.9712897333093631 -0.77989881426642593 5.7191960070278789 134 113 125 0.083090539574049507 3 1994 2 2110 1 1674
1887 1.8978119467553576 -1.3318592034195267 5.7331074572243077 142 116 130 0.31982196708593502 6 5448 4 5706 5 5295 7 5616 8 4794 3 5500 2 5598 9 1514 1 1396
12161 1.2303108407734213 -0.96994235070722867 5.6905840851881484 143 122 139 0.10920365879564109 3 2019 2 2117 1 1715
1888 -1.7285988749080743 -1.3048712953818662 5.6456921597827359 99 72 85 0.45662013079760949 6 5450 4 1985 5 1649 7 5506 9 7334 10 7616 11 7645
12162 2.2836706894935124 -0.79036720899575319 5.715521963086708 91 69 83 0.068823874321462059 3 2065 2 2173 1 1735
1889 1.4894705323655735 -1.3265240680675523 5.720400343915264 132 107 128 0.32831384270703845 6 5451 4 1774 5 5311 7 1587 8 1304 3 1662 2 1809 9 1467 10 1579
12163 0.73255352914946958 -0.87641117666808688 5.4411517686749127 62 27 30 0.36814704896840639 3 2132 2 2217 1 1805
1890 2.4990766823995507 -1.3314931645539243 5.7454242354575218 129 105 118 0.2389720424337054 6 5452 4 5667 5 5281 7 5642 8 1389 3 5443 2 5536 1 4561
12164 0.18333964593124624 -0.90036809976343735 5.2613488543584168 124 75 86 0.94700458131681442 3 2165 2 2236 1 1828
1891 2.254304255536681 -1.3283087159083802 5.7425326334047346 139 116 132 0.21505151368082406 6 5454 4 8376 5 5287 7 5636 8 4820 3 8086 2 5568 2 8120 1 4588 1 6798
12165 2.2387897935038796 -0.72906604872999692 5.7024146747688684 119 97 110 0.05224667052748725 3 2149 2 2243 1 1783
1892 2.2542650818733621 -1.3283000804890863 5.7423330428100039 139 116 132 0.21047282849382631 6 5455 4 8377 5 5288 7 5637 8 4821 3 8087 2 5569 1 4589
12166 2.0780212716121795 -0.73562362323672137 5.6973244468407396 88 65 81 0.22403666702571204 3 2167 2 2257 1 1790
1893 2.955659790676235 -1.3187260614184395 5.7467180214865632 137 121 144 0.34487743161817963 6 5460 4 5648 5 5271 7 1682 8 1438 3 5395 2 5496 2 8071 1 6739
12167 2.1058820642658138 -0.69709232150888678 5.7024582718819081 93 68 82 0.29035047807775377 3 2212 2 2291 1 1823
1894 -2.1877946427843087 -1.2833765748652781 5.6369600415973071 112 89 102 0.35493553019538437 6 5464 4 2030 5 5394 8 7372 3 2074 9 7286 10 7576 11 7558
12168 2.9158654791781808 -0.59913417435730343 5.7089613747443941 87 61 76 0.36533396218318193 3 2228 2 2319 1 1824
1895 -2.1040767977077901 -1.2811826375024247 5.6252056313732011 115 92 107 0.55834328760895524 6 5465 4 2027 5 1678 8 7381 9 7306 10 7584 11 9428
12169 -0.20573883789021952 -0.82415114838396364 5.2845527957990459 116 96 72 0.40224409245257675 3 2280 2 2346 1 1905
1896 1.8847389052800212 -1.3108907389125306 5.7390446342845287 79 64 81 0.45940026675571566 6 5467 4 5725 5 5313 7 5635 8 4808 3 5517 2 5611 9 1537 10 1656 1 4636
12170 0.28188467038716741 -0.75434496103286697 5.2435006694659405 78 53 62 0.036994253751314786 3 2297 2 2366 1 1915
1897 -3.1951315678416639 -1.2731007586521839 5.5957975089927245 114 99 120 0.44529214266795752 6 5468 4 2077 5 5416 10 10550 9 8944
12171 1.3832662917861152 -0.68955188364363773 5.6900038832412401 136 115 137 0.097762683545671289 3 2291 2 2367 1 1892
1898 -3.3214327167851394 -1.2700735831836916 5.5940628294042405 113 94 107 0.4458651017879573 6 5469 4 2084 5 1732 8 7286 7 5459 3 2203
12172 -0.41376534887210975 -0.79990003369932694 5.3125787086175826 38 17 16 0.79642696965549531 3 2324 6 5754 2 2383
1899 1.1778925674419212 -1.3020072881020917 5.718716247950586 135 122 146 0.36379208849123179 6 5470 4 5754 5 5335 7 5613 8 4764 3 5601 2 1870 1 1509
12173 2.2271670630663367 -0.58932375929198688 5.7084761789057863 76 55 66 0.028428130114517794 3 2313 2 2401 1 1897
1900 2.4858651499025197 -1.3087728120054052 5.7544208216048034 87 64 79 0.4451896158288689 6 5471 4 5684 5 5297 7 1674 8 1414 3 5461 2 1673
12174 1.4825386920156232 -0.62962202455300453 5.6701386567030987 107 72 98 0.5262226130823523 3 2358 2 2429 1 4954
1901 -2.8845349582016571 -1.2660831230336329 5.6012689712559869 120 108 134 0.24817808621250245 6 5472 4 2070 5 1721 8 7330 3 2158 2 2205 9 8968
12175 3.0624506522965991 -0.45853458157477495 5.7644983591359029 97 70 94 0.1684899254180616 3 2380 2 2451 1 1932
1902 0.98638098215263259 -1.2941305223894346 5.7088558227498094 128 104 118 0.15229312213834037 6 5473 4 5760 5 5344 7 5609 3 5625 2 1897 1 1529
12176 2.9585478455335514 -0.45876506759845381 5.7078578783423168 119 95 117 0.18648008792429105 3 2388 2 2453 1 1941
1903 2.2472852274619708 -1.3033509931050959 5.7413464745376253 110 77 91 0.24405498869376316 6 5474 4 8387 5 5309 7 5659 8 1396 3 8099 2 5584 9 1601 10 1716 1 4604
12177 -1.3953896459030493 -0.77826605147007821 5.3856873734728303 95 56 62 0.12610532664315818 3 2429 2 2455 1 2011
1904 -2.1234793500096973 -1.2637525525472517 5.6299221483998849 51 39 55 0.25294323572089755 6 5482 4 2036 5 1696 7 5522 8 4545 9 7312 10 7589 11 7585
12178 3.336562702138393 -0.47029782315657526 6.426425308189522 116 117 168 0.79691252204112306 3 2392 2 2459 1 4955
1905 -2.1234793500096973 -1.2637525525472517 5.6299221483998849 51 39 55 0.25294323572089755 6 5483 4 2037 5 1697 7 5523 8 4546 9 7313 10 7590 11 7586
12180 2.7873004724751258 -0.43995000998674122 5.7018602930069013 104 76 92 0.29298879283034579 3 2422 2 2491 1 1971
1907 -2.2095754018432627 -1.2651701420542083 5.6413976009445808 58 43 56 0.40629729182754037 6 5488 4 5859 5 5408 7 8292 8 7382 3 2089 2 2170 9 9031 10 9439 11 9421
12181 3.3339570640044673 -0.43768527200975338 6.4258996306487042 125 134 184 0.80375486049217482 3 5991 2 2494 1 1956
1908 1.4638228663840644 -1.2855195473658849 5.7267957193853229 136 123 145 0.19882840795577544 6 5489 4 5749 5 5337 7 1644 8 1346 3 5583 9 1508
12182 3.060986351444011 -0.41850531179490158 5.7654862934210369 97 69 91 0.13145445343855236 3 2424 2 2498 1 1965
1909 1.4637473429492931 -1.2853296931969302 5.7248357206403542 136 123 145 0.21455931160067174 6 5490 4 5750 5 5338 7 1645 3 5584 2 1849 1 1491
12183 3.060986351444011 -0.41850531179490158 5.7654862934210369 97 69 91 0.13145445343855236 3 2425 2 2499 1 1966
1910 1.5374771115310482 -1.2825008452454554 5.7270144174096664 81 60 72 0.35116476992959839 6 5491 4 1805 5 1567 7 1650 8 1352 3 1692 2 1843 9 1522 1 1486
12184 0.23645699766479633 -0.58836166677448387 5.2856131343185995 58 28 35 0.044740596672247807 3 6024 2 2508 1 2031
1911 -3.3795404553768877 -1.2458115331082937 5.5956590565336839 132 119 139 0.20976650858725118 6 5492 4 2100 5 5436 7 5481 3 2222
12185 2.8319660399455922 -0.41501479656824464 5.7047123098037709 123 101 119 0.10509538738149593 3 2447 2 2515 1 1982
1912 1.0802629706861557 -1.2712572958347748 5.706299768337872 85 61 78 0.73287582843308319 6 5493 4 1840 5 5354 7 5638 8 4784
12186 2.6462990938771314 -0.40990870937311086 5.7070799235019134 90 64 85 0.55787048401856631 3 2477 2 2532 1 2006
1913 2.3042711830413363 -1.278827223908793 5.7333706063579672 98 68 83 0.25687454802865656 6 5495 4 5720 5 5321 8 4857 3 5490 2 5590 9 1643 10 1743 1 4612
12187 2.7943023837534233 -0.39849535863004276 5.7024381576470198 96 73 93 0.14150379988917702 3 2468 2 2533 1 2002
1914 2.0053752101189786 -1.2728785832516689 5.7351965428719662 122 112 135 0.30988833371122393 6 5499 4 5741 5 5334 7 5679 8 1407 3 5529 2 5618 1 4648
12188 2.7943023837534233 -0.39849535863004276 5.7024381576470198 96 73 93 0.14150379988917702 3 2469 2 2534 1 2003
1915 -3.5304298034333068 -1.2305892014109103 5.5880118718340501 114 100 120 0.4710439707245081 6 5500 4 2113 5 5444 3 2243
12189 2.9241014881513125 -0.38559343966834148 5.7040187913172664 103 76 98 0.12119808463406893 3 2472 2 2538 1 2008
1916 1.4286567645455766 -1.2617219581337289 5.7197545770917406 75 61 82 0.63146976187492199 6 5501 4 8435 5 5350 7 5662 5 7998 8 4818 3 5605 2 5667 9 4980 10 5303 1 4698
12190 -3.1711716027049004 -0.80803452841297441 5.5951290800527165 63 48 68 0.04016920500895603 3 2521 2 2539 1 2088
1917 0.98490566934077417 -1.2590187227139178 5.713052334151679 129 107 128 0.32516438726166275 6 5502 4 5783 5 5362 7 5646 3 5649 2 1923 1 1553
12191 1.7962379661197978 -0.45057000853589757 5.6870945580000605 116 100 117 0.085158685337429166 3 2498 2 2548 1 2038
1918 -1.9310039954011138 -1.2354301629124556 5.6363328330577183 112 98 120 1.1442176554008787 6 5504 4 5864 5 8052 7 5557 8 4598 3 2083 9 1020 10 987 11 782
12192 1.9075795955729362 -0.40346548356348055 5.6969466303688838 64 39 63 0.16198131022883569 3 2527 2 2587 1 2070
1919 1.139703083837897 -1.2537271713463045 5.7239015152195121 133 120 143 0.42817414021545258 6 5507 4 5776 5 5363 7 5658 8 4803 3 5638 2 5707
12193 2.052275314455998 -0.38370994616233184 5.6947187526645147 117 102 120 0.13502456650026781 3 2538 2 2600 1 2076
1920 -2.8860795467997846 -1.2241669847694259 5.6107844191754124 127 108 130 0.78592278744980093 6 5509 4 5897 5 5439 7 8293 8 7361 9 7226 10 9385 11 7408
12194 2.0269207793348194 -0.37379487563716607 5.6718546839109356 137 120 130 0.087130323289791811 3 2546 2 2609 1 5062
1921 -2.7935573991645 -1.221903550154827 5.6076090455240504 125 111 132 1.0945294409654827 6 5510 4 2097 5 1756 8 7367 3 2196 9 9004 10 9400
12195 2.7087620244613735 -0.32036786070025264 5.7078991089264752 127 108 127 0.093040949214478655 3 2550 2 2620 1 2079
1922 1.1876986169563339 -1.2478490985919335 5.7161063935591638 136 114 135 0.3008642390249488 6 5515 4 5782 5 5366 7 8386 8 4811 7 5665 3 5637
12196 -1.346830594344915 -0.55677706058361098 5.4124098935682685 86 46 57 0.17526508822704989 3 2600 2 2622 1 2164
1923 1.4304132831576011 -1.2420829083990788 5.721178091236693 142 129 154 0.260078430873384 6 5516 4 5771 5 5364 7 5681 8 1387 3 5613 2 5686 9 1555 10 1668 1 4703
12197 2.6073351177047632 -0.3189298749366335 5.7007704008208746 109 96 114 0.27905136945995168 3 2558 2 2627 1 2094
1924 2.5428003412801412 -1.2396994543886839 5.7401692369990212 104 74 98 0.23462312559967075 6 5519 4 5736 5 5345 7 1754 8 1467 3 5492 2 5595 1 1371
12198 2.7149436163589198 -0.30606405846605145 5.699241383622291 99 77 98 0.10767751943247099 3 2567 2 2641 1 2098
1925 2.1217257618469239 -1.2348540833946717 5.732080190769679 102 82 103 0.29794266970964978 6 5521 4 5751 5 5356 7 5698 3 5545
12199 0.19966436852638694 -0.42590137613979973 5.2738141910365801 143 95 107 0.07639298798829737 3 2613 2 2654 1 2166
1926 -0.51720784917014251 -1.1446878034035055 5.2895905626584856 124 70 78 0.32139165062234537 6 5522 4 1998 5 5405 7 5618 5 1706 8 4720
12200 2.3563518914263466 -0.306310823930942 5.6865721726159668 102 85 104 0.097838197458364973 3 6140 2 2672 1 2132
1927 -1.8541775165807375 -1.1910665529306108 5.6421077347921527 131 104 119 1.8365194337325874 6 5525 4 2080 5 1757 7 10065 8 9223
12201 2.3563518914263466 -0.306310823930942 5.6865721726159668 102 85 104 0.097838197458364973 3 6141 2 2673 1 2133
1928 0.51805229374528072 -1.1690189430726898 5.4653195576705684 61 31 41 0.50841793991074369 6 5526 4 5813 5 5389 7 5676 3 5710 2 2006 1 1637
12202 0.67084462803349632 -0.22616829283249026 5.3323409782281299 101 48 59 0.41681337431453475 3 2779 2 2820 1 2280
1929 2.9196767924767189 -1.2087082621080274 5.7393119236251469 121 92 113 0.31479933795264475 6 5530 4 8411 5 5351 7 5721 5 7999 3 8096 2 8122 1 6788
12203 0.6981375458633472 -0.21402696856980163 5.3390152850464556 139 92 106 0.049776503939685565 3 2796 2 2832
1930 -2.6827525783953003 -1.1737681827100761 5.6112972398950633 117 96 115 0.51209331585444062 6 5532 4 2118 5 1793 9 7309
12204 2.435646953237431 -0.1107950002536872 5.6719633117732826 114 89 104 0.53838013806848883 3 2802 2 2861 1 2289
1931 -1.2117635845913437 -1.1152706684972928 5.3265977369558906 125 69 81 0.40692781966121211 6 5537 4 5881 5 5441 7 5627 3 2096 2 2178 1 1803
12205 2.4554902750965177 -0.10854260943947157 5.6805405804122815 112 91 106 0.25844145438899463 3 2807 2 2864 1 2290
1932 -3.0565858563002402 -1.1468325376497368 5.5983670669151495 77 64 85 0.33038111884625798 6 5543 4 2161 5 1827 7 5580 8 7397 3 2267 9 7269 10 9406 11 9351
12206 -0.12015420482041543 -0.15476124687292483 5.1743072969676271 166 151 143 0.25428106279508417 3 2897 2 2912 1 2373
1933 -3.1696734432341414 -1.1404392092378801 5.5906452014625376 86 71 91 0.26691924154368318 6 5546 4 2167 5 1832 7 8328
12207 3.0144431626737602 0.0063069497927671038 5.6840351077618161 100 76 98 0.026724803359940156 3 2906 2 2967 1 2385
1934 -3.064872111731646 -1.126439122433311 5.5945955620130636 117 103 130 0.4881152254377602 6 5550 4 2169 7 8334 9 9024
12208 2.8283436953346652 0.037206703632296417 5.6797253849598786 136 112 130 0.239237264830783 3 2951 4 3169 2 3014 1 2427
1935 -3.0082016072870106 -1.1214423725248701 5.594535388791277 89 70 92 0.2867652030208826 6 5553 4 2175 5 1844 7 5592 8 7410 9 7304 10 7549 11 7471
12209 1.8756638858595198 0.018816186999707645 5.6698981255926979 98 75 95 0.40607324219169644 8 2572 2 3019 1 2457
1936 -0.44193062173337222 -1.0758235878961457 5.2916046147160269 115 64 71 0.27188014499154201 6 5555 4 2063 5 5446 3 2050
12210 2.9286030630989033 0.051704353013027025 5.68049654590705 103 79 97 0.14325841987965413 3 2965 2 3033 1 2443
1937 2.7026225353770092 -1.1491076373762927 5.7320555744387827 112 84 102 0.28278517789962587 6 5558 4 8441 7 5742 8 1562 3 8141 2 8158 1 6840
12211 0.035498382322652199 -0.020013016867374778 5.1842680453202616 170 161 156 0.19741914484829901 3 3034 2 3034 1 2487
1938 -3.1387871426516409 -1.1126313478163059 5.5917021338675017 88 76 95 0.38763540770981975 6 5559 4 2199 5 1854 7 5595 8 7409 3 2300 9 7284 10 9413 7 8342 11 10591
12212 2.0111939672408243 0.064501017271554772 5.680220700255707 86 62 82 0.075591828410033798 3 3035 2 3090 1 2498
1939 -2.8377386155751489 -1.1151394935851444 5.6037708511377335 140 120 140 0.20010125359580522 6 5560 4 2170 5 1847 8 7423 7 8353 3 2276 9 9044 10 9447 11 9399
12213 0.066013576752353614 0.023976359528726333 5.2617644132536698 117 67 75 0.5625758228761456 3 6456 2 3098 1 2531
1940 0.97571056382737809 -1.1338278223222349 5.7001586830015638 132 104 126 0.56711782748437378 6 5563 4 5828 5 5420 7 5717 3 5712 2 5769
12214 -0.79874944762612454 0.016944504141790204 5.2474665738300157 66 29 37 1.4186112679204439 3 6487 2 3112 1 2552 10 8489 11 6226
1941 2.012818316004799 -1.1342927570441756 5.7191871575348499 104 77 95 0.24209078483129451 6 5564 4 5802 5 5402 7 5736 8 4960 3 5633 2 5697 9 1776 1 4707
12215 1.9656491308536295 0.073288757844840485 5.6638076482255659 75 58 77 0.038765130035676061 3 3048 2 3116 1 2510
1942 2.0128279620999412 -1.1342486375968563 5.7191487606463589 104 77 95 0.2399052296240396 6 5565 4 5803 5 5403 7 5737 8 4961 3 5634 2 5698 9 1777 10 1845 1 4708
12216 0.0037057443739292708 0.041608094715324617 5.1879333447357432 44 28 32 0.30896567017770554 3 3112 2 3124 1 2562
1943 -2.5386717225940267 -1.1120874572894486 5.6154026500527428 121 97 119 1.2074858041669891 6 5566 4 2163 5 1845 7 5625 8 4646 9 4679 10 7626
12217 3.3275055003246936 0.11940883959464825 6.3798404032268863 134 146 191 0.24066316025532486 3 3028 2 3127 1 2496
1944 -3.0975772056884257 -1.0985988999324925 5.5868155517823004 124 107 133 0.56847900479278102 6 5567 4 2209 5 1865 8 7418 7 5607 9 9035 7 8351 10 9422 11 9370
12218 3.3148313319591529 0.15422621391140354 6.3755894188759905 159 176 220 0.26376781583324482 3 3074 2 3163 1 2538
1945 2.258533808598004 -1.1282101028695499 5.7145296596886901 133 108 129 0.46165312521249768 6 5569 4 5797 5 5401 7 1827 8 1548 2 5681 9 1793 1 1500
12219 1.8633352629760063 0.12129544743048372 5.6596963645683065 105 75 90 0.099481024895523129 3 3126 2 3164 1 2572
1946 -2.6378476243690918 -1.0978477339787494 5.6073453388539276 79 61 80 0.19492603843780359 6 5571 4 2183 5 5486 7 5633 9 7373 8 7450 10 7625 11 7605
12220 -1.7439360794941854 0.068679753807669622 5.2268419141872755 135 91 109 0.10356525487546998 3 6539 2 3168 1 2590
1947 0.9929738887649362 -1.1162886328943904 5.6968364755416188 89 61 76 0.18861102622472226 6 5572 4 5832 5 5432
12221 1.3575732951839541 0.11145499724390155 5.2870471291780063 56 29 38 0.056311081411538733 4 3267 2 3169 1 2581
1948 0.9929738887649362 -1.1162886328943904 5.6968364755416188 89 61 76 0.18861102622472226 6 5573 4 5833 5 5433
12222 -0.4741533538397304 0.10292730876493371 5.2074482583500101 84 46 49 1.382971348584515 7 6652 2 3182 9 5911 10 6220 11 6326
1949 -2.9400730381689879 -1.0919240811043864 5.5935146674808554 73 58 81 0.59815584737696126 6 5575 4 2210 5 5492 7 5624 8 7438 9 7336 10 9445 11 9394
12223 -0.17729921631339876 0.1218049294661664 5.2293055008723242 55 24 29 0.19351056976572237 3 3200 2 3196 1 2609
1950 2.1544113687132906 -1.1178107238597488 5.7203553428427796 122 101 122 0.46220969363775488 6 5577 4 5808 5 5412 7 5748 8 1551 3 5635 2 5699 1 4700
12224 0.72919768778286298 0.13751900746184234 5.4320936108829256 103 51 63 0.069345236859844894 3 3184 2 3199 1 2601
1951 -2.5831839565694454 -1.093018124981457 5.609618000145173 124 104 124 0.21228537244066265 6 5579 4 2189 5 1861 7 5644 8 7458 2 2331 9 7385 10 7643 11 7629
12225 -3.1672282564815966 0.13371530290037292 5.5362278039769288 71 62 86 0.20876436796634523 3 3255 2 3222 1 2633
1952 -2.4680210841470069 -1.0951366388211341 5.6235159220958879 69 56 74 0.46714727229151126 6 5580 4 2179 5 1859 7 5647 8 7461 9 9086 10 9496 11 7650
12226 -1.8560185475483177 0.14506361272217841 5.2286215097524451 73 35 43 1.1428348806313109 8 8224 2 3228 9 8172 10 10079 11 10087
1953 -2.4680210841470069 -1.0951366388211341 5.6235159220958879 69 56 74 0.46714727229151126 6 5581 4 2180 5 1860 7 5648 8 7462 9 9087 10 9497 11 7651
12227 0.28502403981783325 0.22925949618401747 5.2086515878466146 152 100 113 0.28547048499186101 5 6401 2 3263 1 2669
1954 -3.4146967144668476 -1.08469777262253 5.5829273030417736 104 79 98 0.1480674550592187 6 5584 4 2249 5 1887 7 5606
12228 0.59396482369008852 0.23627921636749905 5.3556912974565831 148 94 108 0.24781717021518573 3 6592 2 3268 9 3024 1 2662
1955 2.2440832425435744 -1.1092996337936341 5.7174732951115308 108 77 96 0.41174006374204419 6 5587 4 8466 5 8049 7 5758 8 4992 3 8180 9 1807 10 1911
12229 2.5622707930840272 0.25499266666730497 5.6633717669538575 91 63 72 0.14715978013511011 4 6744 2 3272 1 2648
1956 1.2973811480100668 -1.0994059680656123 5.7009883358353974 143 118 133 0.3960737515340943 6 5588 4 1991 5 5437 7 5738 8 1504 3 1878 2 2008 1 1624
12230 2.460152832702466 0.26449259686934068 5.6747013116106686 121 99 112 0.28520505406635721 5 3204 2 3283 1 2658
1957 -2.4192260590216517 -1.0792003779152144 5.6218852021368146 118 95 109 0.185399849859679 6 5591 4 2190 5 1870 7 5670 8 7472 3 2269 9 7426 10 7690 11 9478
12231 2.7883145698584269 0.27326968490375469 5.6668875160708412 97 71 87 0.097138431188152727 4 3406 2 3292 1 2672
1958 -2.5491062733828738 -1.071180868612448 5.6099239601652959 117 95 113 0.38260905707670034 6 5593 4 2212 5 1876 7 5672 8 7467 9 7416 10 7674 11 9466
12232 2.6557426097439789 0.28538974606466799 5.668256598904204 139 120 132 0.13389704996582233 3 3278 2 3306 1 2681
1959 -2.1372293858104459 -1.0749737032838225 5.6224856768811211 125 102 118 0.64024148897579247 6 5594 4 5933 5 5491 7 5683 8 7491 7 8393 3 2251 2 5930 9 7448 10 7727 1 4927 11 9520
12233 2.926580050987972 0.28469366335120033 5.6723024430772675 134 111 124 0.43096631296444649 3 3272 2 3307 1 2680
12234 1.5671264223070001 0.30818337595222678 5.6440208828580412 104 73 89 0.11593096654008998 3 6612 2 3317 1 5474
1961 -3.0879159118508746 -1.054338032812814 5.5892419771993946 124 110 134 0.33349844332585099 6 5598 4 2262 5 5511 8 7449 7 5661 3 2356 2 2386 9 9048 7 8381 10 9448 1 1959
12235 2.161031176422302 0.3468401144409512 5.6414698994086736 39 52 137 0.15520626317993116 3 3351 2 3352 1 2729
1962 -2.3383546132904396 -1.061079185010672 5.6219218639449471 70 48 60 0.10180359771106354 6 5599 4 2213 5 5501 7 8398 8 7487 3 2281 9 9116 10 9524 11 9493
12236 1.6422290336488876 0.37524243919109779 5.644849237547664 129 118 140 0.064665013254134013 4 3481 2 3361 1 2742
1963 1.8645396391957811 -1.0792813332230762 5.7089701570187579 114 95 113 0.97679471072109636 6 5600 4 8485 5 8074 7 8461 8 7654 9 7672 10 5472
12237 1.9058221766661634 0.37385802078660146 5.6644435840911971 108 102 125 0.16969822500012302 3 3375 2 3362 1 2741
1964 -1.7565524655189411 -1.0531743700474736 5.6288372637620041 123 93 105 0.24152143447601226 6 5602 4 2181 5 5498 7 5702 8 7513 9 7485 10 7797 11 7799
12238 1.0099932661979083 0.38032146503288161 5.0411100572113723 114 78 91 0.21370233535413802 3 3418 2 3399
1965 2.8426705206125047 -1.0731901294202628 5.732194378804234 104 73 91 0.28651060198820688 6 5605 4 5805 5 5421 7 1918 8 1654 3 5591 3 8167 2 5658 1 4663
12239 2.2135488908548355 0.39851272483853556 5.648873443452576 133 107 120 0.25200857231644491 3 3389 2 3401 1 2768
1966 2.9749413272715279 -1.0740317497037875 5.7354326752451161 113 83 100 0.6520422504285569 6 5606 4 5799 5 5418 7 1927 8 1661 3 5565 2 5646 1 6849
12240 2.2135488908548355 0.39851272483853556 5.648873443452576 133 107 120 0.25200857231644491 3 3390 2 3402 1 2769
1967 -2.4148517283442232 -1.0441764927857748 5.6263647402736767 115 101 124 0.66967863954239748 6 5609 4 2239 5 1903 7 5696 8 4708 11 4716
12241 1.5707751517753927 0.38494942837651458 5.2215901323653959 77 54 58 0.45500048625542849 3 3404 2 3405 1 5520
1968 -3.3828361695023319 -1.0331705622500322 5.5797519933362194 92 78 95 0.31292349245364293 6 5611 4 2287 5 5536 3 2381 2 2426
12242 1.0902843513645106 0.40942220405883045 5.0442390862455779 72 38 50 0.27812480204146506 4 6855 2 3426 9 3167 1 2793
1969 1.3564317037186349 -1.0568360298171156 5.7059745341290347 129 105 121 0.56871395616488751 6 5613 4 5855 5 5457 7 5766 8 4983 3 5722 2 5777 1 4773
12243 -1.2374919666412807 0.46011967736878429 4.9867983171574979 130 83 96 0.085557051543407148 3 6746 2 3433 1 2811
1970 -1.7697244554730187 -1.0337310064426917 5.6285271169221343 62 38 50 1.17260843742062 6 5616 4 5947 5 5508 7 8421 8 7531 9 7494 10 7808 9 9153 11 9576
12244 1.3237095704783763 0.41726666750435165 5.0457699770343174 130 83 98 0.45361898927357108 3 3461 4 6862 2 3435 9 3168
1971 -1.2126846227668111 -0.98844837684555631 5.3229906849411313 124 67 81 0.36244639039228338 6 5617 4 5929 5 5500 7 5720 8 4813 3 5902 2 5917
12245 -1.5809121020748655 0.47077059062699289 4.9748660964768083 120 81 96 0.7076493919384077 3 3530 2 3442 10 6576 11 6676
1972 1.0794657665578642 -1.0409738023261874 5.6955890054893024 103 70 85 0.28907656728228015 6 5622 4 2062 5 5463 3 1954 2 2064 1 1689
12246 -0.73449998030853814 0.4578873626323165 4.9984238416371767 126 78 96 0.25582631073034523 3 6743 2 3444
1973 2.188685295994953 -1.044225211784237 5.724737157968498 71 54 66 0.67504996764702163 6 5624 4 5830 5 5452 7 5810 8 5033 3 5682 2 5747 1 1565
12247 -0.23605664965227416 0.47808608983543238 5.0199938828431625 76 42 57 0.24819524325935685 3 6757 2 3473 1 2837
1974 -3.0926890825706286 -1.0119752152821573 5.5865082859405888 110 96 120 1.1123830255436602 6 5626 4 2291 5 1934 7 5692 8 7471 5 5539 9 9068 10 9465 11 10639
12248 1.5603324195642994 0.46309929947273387 5.3225976783397559 68 35 52 0.020889537401322614 3 3480 2 3478 1 2832
1975 2.7346566717191507 -1.0435973799516098 5.7315960865203968 92 68 81 0.21736601143340789 6 5627 4 8474 7 1967 8 1681 9 1908
12249 1.2940768515015117 0.45229027130615757 5.0485373248757739 63 31 42 0.15488254575002613 7 3569 2 3482 1 2833
1976 2.7347461823639132 -1.0437697241104358 5.7318599250077948 92 68 81 0.2447334389002426 6 5628 4 8475 7 1968 8 1682 3 8177 9 1909 1 6870
12250 3.0234922390513028 0.50323373414263062 5.6566010295792051 117 95 110 0.1212464230846501 3 3509 2 3550 1 2887
1977 1.2485058295308735 -1.0314330420811035 5.7047020831288382 98 66 78 0.36759454446402029 6 5631 4 5871 5 5466 7 5789 8 5000 3 5745 2 5795 1 4790
12251 2.4836416963751682 0.52375365803747365 5.6581094943773564 112 102 123 0.19301938240267483 3 3540 2 3559 1 2898
1978 -2.1286636171406266 -1.0065278504198363 5.6230728591670953 86 67 84 0.59962529969782608 6 5635 4 2263 5 1919 7 8430 8 7526 9 7482 10 4985 11 4841
12252 1.5550379883600016 0.54443309662065686 5.4745423358657801 72 36 46 0.15203650761520862 3 3571 2 3569 1 2915
1979 -2.128052695662026 -1.0069972956686721 5.6209616588262792 86 67 84 0.24176684663293835 6 5636 4 2264 7 8431 8 7527
12253 -1.5769648702531762 0.59677775791139631 4.9792902508564927 71 36 46 0.24779849450015246 3 3636 2 3572 1 2927
1980 -3.0760301129873238 -0.99693353732024859 5.5848146714113271 75 63 93 0.99595162418451377 6 5640 4 2306 5 1953 7 8413 8 7483 9 9085 6 1878
12254 2.460753638378391 0.59584907610715498 5.6467953367081254 106 80 93 0.19494632571592696 3 3629 2 3635 1 2974
1981 1.3002753727703091 -1.022731596769614 5.7076689313668414 124 108 134 0.58963218954434937 6 5641 4 5875 5 5473 3 5747 2 2053 1 1680
12255 1.5644286882386735 0.59743282304893641 5.1977118104162763 80 39 52 0.13905447566464638 3 6838 2 3640 1 5683
1982 -3.1875120721750072 -0.99088274030090295 5.5812898675350091 104 84 111 0.82652764631704145 6 5643 4 2316 5 5564 7 8410 8 9244 3 2395 9 9075 10 10649 11 10635
12257 -0.10208199929772722 0.66515472596569591 4.9181560468758718 76 49 64 0.61178777958986941 3 3718 2 3656 9 6401 5 6744 10 6659
1984 1.5288742616078637 -1.0152811985116454 5.7087933239163275 129 112 134 0.31955693665175539 6 5646 4 2058 5 5474 7 5812 8 1619 3 1926 2 2043 9 1828 1 1657
12258 0.97324769421056012 0.64797943246265755 5.0341450984385379 115 74 77 0.27966175444456781 3 3705 2 3659 1 3003
1985 1.2644475765075496 -1.0105383666299559 5.7001177938271255 136 112 138 0.32076034568246897 6 5647 4 8525 5 8095 7 5804 8 5016 3 8251 2 5799 1 4798
12259 1.223500191858373 0.64583549135971763 5.0328929133758002 124 75 84 0.071442834391914734 3 3710 2 3669 1 3009
1986 1.4832427795740761 -1.0102204919090352 5.6991896126749948 136 113 135 0.87612284531459572 6 5648 4 8523 7 5813 3 8247 2 8264 1 6936
12260 2.5161266879740594 0.67858606043705239 5.6435586933378286 119 99 110 0.26343652216885266 4 3831 2 3700 1 3041
1987 -3.2108856755346471 -0.9863617255276409 5.5808578266013082 134 117 137 0.48405181314623852 6 5649 4 2323 5 1965 7 5703 8 4690 3 2403 2 2443 9 4698 10 7612 11 7551
12261 2.8298666155036871 0.68534055327271926 5.6526334747847597 95 72 87 0.15271179083252634 3 3713 2 3712 1 3056
1988 0.624297194048126 -0.9693538282568156 5.4327398365648509 121 80 98 0.089188423259957461 6 5650 4 5902 5 5487
12262 2.7203239750032613 0.69977715304593935 5.649240643068774 126 112 128 0.17248585678247244 3 3724 2 3720 1 3063
1989 -1.1918901301049853 -0.94808684715990121 5.346073637581191 119 67 76 0.36719987581031022 6 5652 4 8570 5 8130 7 8449 3 8341
12263 2.4122295104716418 0.73319680299114087 5.6584327939658046 124 120 142 0.19398162961561086 3 6930 2 3729 1 3073
1990 -3.0929236107614315 -0.9740999504161939 5.5809889691167225 115 97 119 1.1659194999702795 6 5654 4 2333 5 5568 7 5710 8 7494 9 7420 10 7656 11 7598
12264 2.9245277206589613 0.72722052870555154 5.6477643786869081 108 75 86 0.0672248539930905 3 3748 2 3738 1 3078
1991 -1.779671025605627 -0.9800831638560199 5.631227951401395 128 101 116 0.29166162800529571 6 5656 4 2271 5 5542
12265 1.7368522697423741 0.80320586687980111 5.6273645427414198 126 97 112 0.43866813372275826 3 3780 2 3753 1 3091
1992 -1.779671025605627 -0.9800831638560199 5.631227951401395 128 101 116 0.29166162800529571 6 5657 4 2272 5 5543
12266 2.267074873397537 0.79065722182764542 5.6363984946527719 138 117 131 0.090245381462461693 3 3781 2 3761 1 3103
1993 -1.1276396576216194 -0.94714940101337419 5.4032495549430015 69 30 37 0.14588620147327266 6 5658 4 2235 5 5531 7 5750 8 4869
12267 1.9593220547072989 0.81544821075043461 5.6364224737834316 94 76 104 0.091599296783059045 3 3795 2 3769 1 3107
1994 2.7333950953681363 -0.98384801937020649 5.7215777165853963 102 73 94 0.33036531093146698 6 5667 4 5845 5 5469 7 2035 8 1727 3 5671 2 5738 1 4716
12268 1.6472495504421136 0.88231697520291918 5.6222543429466159 105 96 117 0.3261805895380584 4 3964 2 3803 1 3135
1995 1.2911559869425047 -0.97625321823652933 5.6940399640297867 139 114 134 0.25372790580250093 6 5670 4 5898 5 5494 7 5853 8 5037
12269 1.6472495504421136 0.88231697520291918 5.6222543429466159 105 96 117 0.3261805895380584 4 3965 2 3804 1 3136
1996 -2.3294295966376257 -0.956459260307995 5.6140854207729163 92 62 76 0.35283480913405146 6 5673 4 2313 5 1975 7 5733 8 7553 3 2372 9 7496 10 7791 9 4826 11 4843 10 5003
12270 0.92787852275867688 0.84588927378170298 4.6448436419666885 87 42 57 0.2091440546081024 3 3874 2 3838 1 3160
1997 -1.9001432094179067 -0.94564231313397773 5.621637669774163 128 104 125 0.57544953217785488 6 5685 4 6016 5 5570 7 5756 5 1976 8 7582
12271 0.92495981082697376 0.86769586248198971 4.762175356254172 103 77 98 0.22245971136560702 3 3879 2 3845 1 3165
1998 -3.0777369394273353 -0.9356376047983983 5.5838212827673974 71 58 86 0.2046135926981964 6 5692 4 2363 5 5594 7 8438 8 7511 9 9119 10 9511
12272 2.4304914884541775 0.89101324470680676 5.6383000282866256 125 109 129 0.30536790360600657 3 7024 2 3856 1 3184
1999 -3.0777369394273353 -0.9356376047983983 5.5838212827673974 71 58 86 0.2046135926981964 6 5693 4 2364 5 5595 7 8439 8 7512 9 9120 10 9512
12273 0.92751623567082531 0.87222226271389147 4.664006080258261 82 44 60 0.13530627930884151 3 3897 2 3861 1 3173
2000 0.52080317663008768 -0.90278054446607314 5.4506101156304929 54 27 37 0.83594098724568855 6 5699 4 5935 5 5534 3 5859 2 5880 1 4876
12274 0.42246591244877801 0.80794803255201408 3.6676031457060012 83 45 60 0.3102795573862821 3 7120 2 3882 1 3186
2001 -2.8893056674983124 -0.91452870937446207 5.5931300548042611 128 101 126 0.49718426541623301 6 5701 4 2369 5 5607 8 7542 9 7473
12275 -5.0368775955633813 1.3555327851236685 4.7870629300609782 72 70 73 0.11231045012552461 3 7181 2 3901 1 3215
2002 2.5299191320784984 -0.92318764886072113 5.7254245321307895 105 76 96 0.67679063670923567 6 5710 4 8531 5 5502 2 5775 4 5889 1 4754
12276 0.92266130461593954 0.9382293757943706 4.7972828005831989 74 38 54 0.06020477998377266 3 3958 2 3902 1 3216
2003 -2.8962753836182005 -0.89464883852206178 5.5899121597803019 106 81 105 0.17942887076785702 6 5714 4 2389 5 2057 7 5763 8 7559 9 7481 10 9550 11 9515
12277 -4.4523553181160356 1.3551397471890496 5.02415172506009 25 59 28 0.16209990986308778 3 4066 2 3908 1 3221
2004 2.0146277676682032 -0.91369041341307211 5.7159055070091309 75 56 73 0.40884936923520365 6 5717 4 5911 5 5517 7 5910 8 1740 3 5766 2 2083 9 1946
12278 -0.52766185353653483 0.92534544951087183 3.6506004665768583 67 37 53 0.068375444170725233 3 4082 2 3934 1 3229
2005 1.5604332613448841 -0.90679625618956394 5.6953934906329557 106 75 94 0.21650755789872406 6 5718 4 5925 5 5535 7 5907 5 8135 8 5094 3 5794
12279 2.8826696952791471 0.98407026873603631 5.6373666908216498 97 68 83 0.13429193778491996 3 3966 2 3981 1 3297
2006 -1.1179802926224585 -0.86208031792993911 5.4108125248610612 94 64 78 0.25998232257552661 6 5721 4 2325 5 2020 7 5846 8 4963 9 5055 10 5329
12280 2.2904910479133362 1.0409231130210193 5.6182107111554469 112 94 118 0.2899939918670536 3 7126 2 4006 1 3316
2007 2.1215687585855787 -0.89648592934429461 5.7119586263981734 142 114 129 0.2009250563916912 6 5723 4 5915 5 5530 7 2115 8 1758 3 5767 2 5814
12281 1.5695085859949327 1.1104163411392203 5.6064956596481954 103 72 89 0.19614018538209421 3 4052 2 4032 1 3325
2008 2.9469684886221006 -0.89700766982178126 5.7237125942179166 107 75 92 0.22757115862606911 6 5724 4 8532 5 8119 3 8223 2 8247 1 6906
12282 0.93002437208033661 1.0091662637538945 4.4129504160163764 89 50 69 0.29271265778634165 3 7218 2 4049 1 3324
2009 0.60429850509399285 -0.85968054920464265 5.4573809026873503 73 34 43 0.26221861841607425 6 5726 4 2238 5 1971 7 5898 3 2176 2 2256 1 1830
12283 0.92668954320054897 1.0877321265864084 4.8778739161391309 74 36 51 0.42049333902703673 3 4158 2 4054 1 5975
2010 -1.1151631779326832 -0.84710047685730905 5.4205205890800299 66 27 35 0.74273377751064418 6 5731 4 2349 5 2038 7 5866 8 4978 9 5072 10 5346 11 7975
12284 0.82096011562884563 0.99379687751626422 3.9926280689480835 80 44 61 0.14769016392735249 3 4238 2 4095 1 3345
2011 2.3199101695773994 -0.88247706407818516 5.7151063896188861 99 68 84 0.28029693517547261 6 5734 4 8547 5 8136 7 5927 8 5126 3 8249 2 5804 2 8275 9 1986 1 4787
12285 0.93855301199916841 1.1057593949239624 4.5086231927066454 135 91 109 0.11447770551116869 3 4280 2 4148 1 3422
2012 2.7757272906608845 -0.87583165011499253 5.7200198594316864 132 108 128 0.41401980303098268 6 5742 4 8538 5 8133 7 5946 8 5136 3 8239 2 8258
12286 -0.42459295566785965 1.1001706138439202 3.6428920835574763 103 64 83 0.15994057912915172 3 4337 2 4154 1 3404
2013 -2.7417828030348952 -0.83876947376245659 5.5926276697932362 125 106 134 1.0282629965152774 6 5745 4 2440 8 7597 10 7829
12287 -0.42459295566785965 1.1001706138439202 3.6428920835574763 103 64 83 0.15994057912915172 3 4338 2 4155 1 3405
2014 1.4586699093209849 -0.85389566070533252 5.6929919748745101 143 113 126 0.091482611531459687 6 5747 4 5955 7 5926
12288 1.8584020609701069 1.214542631770948 5.5982862089846028 78 69 93 0.20385118305634678 3 4231 2 4174 1 3452
2015 2.758973250281612 -0.85713574467963949 5.7156550035187061 107 78 100 0.28082798808912968 6 5748 4 5916 5 5549 7 2185 8 1814 3 5736 2 5793
12289 2.553762663868814 1.163246774296983 5.6196679239137808 126 112 130 0.12007336724299578 3 4211 2 4182 1 3463
2016 1.949909343134054 -0.85219366468611057 5.7204805077986238 125 101 124 0.49695803553680717 6 5750 4 5941 5 5571 7 5945 8 1789 3 5808 2 8299 9 1991 10 2096 1 4830
12290 2.0189070523472856 1.2269632323057331 5.5932188140399797 119 118 140 0.11016331427318184 3 4270 2 4199 1 3474
2017 -0.4140134596289417 -0.79951073175395826 5.3164491680447341 43 20 24 1.4162265033238468 6 5753 4 2348 5 2053 7 2084 3 2323 2 2382
12291 3.0794554650571566 1.2150432987555388 6.0176608953072437 60 50 55 0.55341729235858583 3 4241 2 4211 1 3490
2018 -2.4731742441780868 -0.83152071149830864 5.6157185209510336 56 39 52 0.84138741676446749 6 5755 4 2441 5 5645 7 8507 8 7616 3 2473 2 2489 9 9205 10 9624 11 10748
12292 2.6552753689724296 1.2027590464040419 5.6202372984427562 125 110 129 0.065792406600158379 6 4154 2 4215 1 3491
2019 1.3031423733417682 -0.8435070843980208 5.6872171763149995 146 114 128 0.30935812355136461 6 5756 4 5967 5 5583 7 2145 3 5850 2 2212 1 1785
12293 2.6900382829270262 1.2324699849679346 5.5898060105615492 99 88 118 0.063513639219612894 3 4317 2 4239 1 3523
2020 2.5949773660690059 -0.84941188490678121 5.7198676286954884 127 103 117 0.35444572453635331 6 5758 4 5926 5 5563 7 5956 5 8149 8 5147 3 8250 9 5246 10 2157 1 6933
12294 1.1107653665113866 1.284898649824366 4.9225959278244282 75 39 48 0.10425156876445651 3 4367 2 4240 1 3505
2021 -1.9403816000878633 -0.8203219283593387 5.6144053364740705 65 48 66 0.26382145352812669 6 5765 4 2430 5 5641 7 5883 8 4970 9 5015 10 5248
12295 1.6519830466810779 1.3026539564327058 5.1543884513772928 128 88 104 0.46145358965567579 3 4376 2 4250 1 3539
2022 -2.9842022112951985 -0.81268439237188761 5.5907494942870191 56 45 62 0.1511441421225512 6 5766 4 2464 5 2164 8 7601 9 9179 10 10716 11 10717
12296 1.011915975580425 1.2765257746751577 4.1809666150606679 89 63 69 0.15588376983855246 3 4426 2 4281 1 3569
2023 1.3409396383523868 -0.82944020288146847 5.6994487177959439 81 50 60 0.080098315407302487 6 5767 4 5984 5 5596 7 5948
12297 1.014829376318225 1.2642328726904708 4.1070212300720508 126 91 104 0.20992540398003579 3 4431 2 4283 1 3568
2024 1.3410012631257706 -0.82935284503782436 5.6985220543562134 81 50 60 0.025409943731621445 6 5768 4 5985 5 5597
12298 1.0133876782512428 1.2633226837643987 4.0781241284172429 127 93 104 0.1502655909826662 3 4434 2 4287 1 3570
2025 1.8768435958714504 -0.83357811680214744 5.7194110278153838 70 49 61 0.76983357014794118 6 5769 4 8567 5 5584 7 5954 5 8171 8 5132 3 8288 2 8305 9 5228 1 6970
12299 0.99404179529534831 1.4165377926884011 4.82644200402643 102 80 96 0.25500418102842265 3 4424 2 4300 1 3592
2026 1.6555580900705549 -0.8257134111486093 5.7040668689201972 88 57 68 0.44204878329500091 6 5771 4 5971 5 5593 7 5953 8 5128 3 5840 2 5868 1 4855
12300 1.6505836334608661 1.4485192857754696 5.0010708260136019 90 82 95 0.3013950140319181 3 4464 2 4335 1 3633
2027 2.1659990486879703 -0.82685481989642828 5.7177423566083281 63 46 58 0.58996502582573818 6 5772 4 5949 5 5578 7 5965 8 5145 3 5805 2 5841 9 2027 10 2143 1 4825
12301 1.0151843200160153 1.3885293588335514 4.110856289625489 112 82 92 0.189812590789221 3 4502 2 4357 1 3637
2028 -3.2735262965759082 -0.8031026158078356 5.5804906770609239 65 49 63 0.13231574883760117 6 5774 4 2481 5 2174 7 5854 8 7594 10 9565 11 10697
12302 2.0512059364169506 -2.5907966364533506 5.7919295688288237 128 113 136 0.58176454717079984 4 7739 2 4622 1 55
2029 -3.2735262965759082 -0.8031026158078356 5.5804906770609239 65 49 63 0.13231574883760117 6 5775 4 2482 5 2175 7 5855 8 7595 10 9566 11 10698
12303 2.0023773512204706 -2.5910702504276149 5.7853631865960295 94 69 96 0.099096089869193119 4 4720 2 4631 1 70
2030 1.4402252838042353 -0.81681545555513946 5.6997106996667251 139 118 139 0.30380489497785901 6 5780 4 2273 5 2029 7 2183 8 1788
12304 1.8098582838611068 -2.5864536596173133 5.7733349763018724 137 117 140 0.84239054221685927 4 4748 2 4672 9 198 10 364 1 3845
2031 -0.89440597959293378 -1.1128303747846433 8.1989701008404747 82 51 59 2.8094137462267614 6 5783 4 2351
12305 1.9281319960947372 -2.5587238747093561 5.7883238604260701 122 98 120 0.43043141041568295 4 4760 2 4674 1 116
2032 1.3315227889004517 -0.80930559849320094 5.6891569772265402 150 127 144 0.27245048098965519 6 5785 4 6001 5 5613 7 2188 3 5870 2 5897 1 4881
12306 2.023417822223708 -2.5274652522791818 5.7945539545613762 62 44 59 0.18052771113611729 4 4782 2 4680 1 3838
2033 1.6033961151654299 -0.80977893406684121 5.7029012452672907 139 119 142 0.20636554360578518 6 5786 4 5993 5 5608 7 5962 8 5135
12307 1.9841924584489568 -2.5316937431789777 5.7944972058505204 81 58 68 0.13646568035166476 4 4785 2 4685 1 3847
2034 1.2618876696423396 -0.80465933539050782 5.6873936718441875 156 137 163 0.18116272869607566 6 5788 4 6009 5 5615 3 5876 2 5903 1 4886
12308 1.1041363078935857 -2.7606984066625571 5.7784336027944949 133 113 138 0.11660647629057957 4 7719 2 4691 1 3881
2035 1.7673468553711063 -0.80679308888282875 5.7078343308714032 125 103 129 0.24615101685377408 6 5789 4 5987 5 5605 3 5842 2 5874
12309 1.6717132831140789 -2.5976493454185268 5.7825805324923953 146 124 138 0.38816640362047505 4 4755 2 4698 1 3871
2036 1.725559306207429 -0.80481076759151771 5.7093615291795663 124 106 129 0.39398740374892988 6 5792 4 5990 5 5610 7 5973 8 5144 3 5848 2 5877 9 2011 1 4857
12310 1.1947513153003577 -2.7015391797901525 5.7735767846685597 126 110 136 1.0306346917407503 4 9626 2 4715 1 3899
2037 -1.3972787477176141 -0.75897663959235551 5.3906209390044584 67 26 32 0.375483260511425 6 5797 4 2446 5 5660 7 5916 8 5036 3 2443 9 5114
12311 2.7354199128036489 -2.2928410069431853 5.793677276099249 117 104 130 0.22205987490656201 3 7555 2 4720 1 3834
2038 2.4455798659248718 -0.79246488268405313 5.7083530453836939 127 111 132 0.32924548073727589 6 5802 4 2234 5 2030 3 5809 2 2153 1 4821
12312 2.8958751816108963 -2.2476191587834857 5.7829313462094074 129 104 124 0.17651755666634639 3 7556 2 4721 1 3825
2039 -2.3766466968594675 -0.77467018328752457 5.6085569208456079 62 57 81 0.28815298058194516 6 5805 4 2479 5 5679 7 8537
